ply
format ascii 1.0
element vertex 1067
property float x
property float y
property float z
property uchar red
property uchar green
property uchar blue
end_header
745342.4062 3984372.4129 370.1039 129 122 95
745459.9802 3984485.9517 353.7286 91 99 93
745300.5358 3984406.7124 394.4904 60 81 83
745331.9594 3984493.6131 380.9974 103 111 96
745382.3573 3984509.6028 374.6835 196 139 118
745382.3573 3984509.6028 374.6835 196 139 118
745390.3651 3984522.7887 373.6567 187 132 116
745390.3651 3984522.7887 373.6567 187 132 116
745261.5877 3984364.5522 405.3496 108 104 96
745503.9993 3984504.9953 347.8079 99 110 92
745390.9326 3984420.6128 371.7522 233 175 141
745278.0715 3984480.2826 394.5210 91 104 91
745268.7878 3984400.4143 401.2485 102 101 92
745268.7878 3984400.4143 401.2485 102 101 92
745467.3287 3984427.4992 353.1575 76 100 101
745467.4534 3984427.5241 354.0523 64 92 89
745342.0002 3984449.0619 382.2267 76 78 70
745467.8643 3984487.1944 352.8251 180 154 123
745422.3088 3984523.5718 363.8177 163 150 142
745423.3820 3984379.6550 365.2704 141 128 103
745584.9860 3984377.2405 327.0547 101 115 86
745487.7381 3984508.9401 348.7909 87 106 94
745366.0827 3984447.7085 377.4089 88 102 89
745439.7623 3984433.5166 359.6001 97 127 85
745426.2832 3984384.4526 362.8264 66 102 86
745442.0061 3984528.2714 363.5539 80 96 84
745258.4103 3984446.5098 388.8761 119 127 106
745426.9791 3984528.9834 361.6600 149 139 130
745274.2197 3984426.3271 398.1525 112 108 100
745274.2197 3984426.3271 398.1525 112 108 100
745405.6606 3984465.8411 367.4963 193 182 172
745590.8534 3984500.6446 323.6696 147 141 140
745308.7790 3984485.1526 389.5439 104 134 83
745420.5388 3984481.1312 370.7224 70 91 88
745420.7783 3984481.0584 371.7729 76 94 91
745315.6390 3984491.8421 387.0437 75 100 93
745315.6390 3984491.8421 387.0437 75 100 93
745563.9242 3984451.2371 325.1503 81 97 91
745476.5429 3984483.0800 349.9966 148 129 109
745476.5429 3984483.0800 349.9966 148 129 109
745472.4485 3984369.8092 353.5828 113 113 89
745368.0339 3984514.6666 375.7761 81 96 85
745368.0339 3984514.6666 375.7761 81 96 85
745485.4835 3984523.5212 350.8862 75 83 82
745560.2931 3984528.8106 328.5658 150 127 103
745461.4216 3984435.0504 353.7872 194 184 170
745372.7946 3984466.3342 385.2745 60 80 84
745543.8109 3984354.7310 334.8028 183 153 123
745543.8361 3984354.6935 334.5983 182 152 121
745227.9588 3984492.8355 409.1594 159 152 124
745227.9588 3984492.8355 409.1594 159 152 124
745505.9383 3984492.7581 344.0562 112 121 95
745320.1686 3984384.1348 389.3640 117 128 86
745520.4151 3984413.0220 340.9756 83 105 95
745453.4909 3984344.1239 358.6143 111 123 82
745376.5864 3984507.6234 373.6139 56 89 88
745376.5864 3984507.6234 373.6139 56 89 88
745349.4191 3984478.7921 382.5024 119 194 239
745411.4473 3984461.7689 364.8922 192 177 162
745581.9788 3984361.3569 325.1138 98 106 92
745383.9205 3984410.6960 372.4703 75 103 87
745375.3749 3984476.5718 376.8993 93 105 93
745537.2601 3984355.9636 335.5297 151 129 105
745537.2601 3984355.9636 335.5297 151 129 105
745566.8458 3984416.8448 332.0189 208 145 120
745483.4778 3984516.9384 351.9765 97 110 97
745444.5257 3984475.5649 358.5807 147 119 102
745362.0996 3984444.2726 377.2309 152 130 103
745287.8760 3984514.9106 395.4396 195 183 167
745287.8760 3984514.9106 395.4396 195 183 167
745309.3544 3984515.3622 389.9732 69 92 92
745540.4456 3984514.2950 333.9716 85 104 83
745423.7342 3984381.0804 360.7019 104 113 87
745418.7814 3984463.5194 366.4620 222 210 193
745280.8648 3984494.5888 397.4327 69 102 97
745467.0953 3984510.3226 352.4164 97 105 91
745467.0953 3984510.3226 352.4164 97 105 91
745393.4664 3984375.6415 370.2928 146 128 109
745393.4477 3984375.5979 370.0377 144 125 108
745323.4043 3984399.8777 388.8030 110 124 84
745279.0134 3984338.4594 398.7714 105 114 94
745418.3402 3984514.3596 366.7526 174 128 117
745372.6120 3984351.5817 374.8184 88 110 89
745432.2782 3984507.6881 365.2877 103 109 90
745441.2401 3984482.5397 362.3260 186 166 145
745374.8149 3984514.8609 376.6753 179 166 155
745458.2497 3984426.2578 355.0420 79 97 91
745538.4129 3984368.2847 334.7764 167 153 128
745560.0982 3984475.9431 330.1255 171 142 116
745407.0042 3984518.0416 371.8626 182 137 121
745306.5085 3984526.1941 391.6834 89 106 108
745574.8464 3984405.2727 327.7839 76 95 90
745584.9374 3984457.9802 322.9824 80 111 87
745419.1153 3984518.3651 365.9873 178 132 119
745545.2683 3984358.3473 334.9075 80 93 87
745438.5556 3984476.2542 361.5757 71 94 94
745438.5556 3984476.2542 361.5757 71 94 94
745577.8808 3984354.9815 327.1728 171 141 115
745370.5739 3984396.6026 377.8805 89 105 89
745212.1025 3984522.3423 411.9874 122 117 110
745212.1025 3984522.3423 411.9874 122 117 110
745447.6879 3984422.1346 359.0780 165 129 120
745565.3300 3984488.4540 326.1567 95 122 96
745426.9089 3984471.4503 366.4429 186 139 120
745417.2236 3984524.0794 362.5622 72 85 95
745564.9486 3984341.2869 330.9596 141 132 110
745564.9427 3984341.2140 330.8590 132 125 107
745372.0913 3984383.6675 377.1289 116 113 89
745583.1698 3984545.9728 324.4748 173 140 119
745408.0179 3984460.1124 366.3418 72 103 94
745379.8472 3984419.6351 373.8239 90 113 89
745583.9153 3984468.2526 322.8292 94 99 99
745246.4332 3984369.4386 406.6054 68 103 92
745586.2229 3984479.2935 322.5150 104 103 98
745411.0749 3984523.2609 367.3866 72 77 88
745319.7987 3984463.0181 388.3350 92 105 91
745579.1117 3984359.2515 326.9385 154 126 103
745269.8346 3984472.6541 399.0200 55 86 91
745407.6586 3984499.8007 370.5468 67 92 98
745335.4461 3984399.5072 383.6116 105 108 96
745592.6331 3984514.5066 322.8636 212 207 196
745402.1432 3984417.8930 368.6075 166 141 109
745489.8077 3984494.3369 346.6313 181 155 128
745421.9514 3984407.5361 363.4042 69 97 88
745573.4197 3984492.7322 326.0228 141 122 102
745573.4197 3984492.7322 326.0228 141 122 102
745471.9995 3984512.4985 351.0570 141 118 108
745269.2886 3984478.8766 400.8710 145 129 115
745281.5498 3984502.9490 395.4012 64 93 92
745525.0931 3984331.2072 340.9001 107 111 94
745486.6714 3984542.6856 347.5196 176 154 119
745216.5173 3984345.5729 412.7315 85 111 98
745450.3333 3984477.3335 355.8663 182 146 117
745208.4124 3984491.2644 414.5089 83 97 92
745210.6819 3984503.1863 413.3848 99 109 99
745573.8929 3984516.9720 326.7864 108 111 92
745539.7253 3984422.2824 338.4474 136 124 104
745234.4651 3984510.1535 407.7063 63 85 92
745512.2348 3984477.0897 344.6446 85 107 91
745512.2348 3984477.0897 344.6446 85 107 91
745209.3499 3984421.0365 424.3305 99 112 103
745222.0222 3984370.5640 412.9113 77 105 101
745455.1737 3984454.9744 355.7746 109 112 98
745385.4632 3984438.6440 372.4224 147 127 107
745385.4632 3984438.6440 372.4224 147 127 107
745566.3731 3984390.4029 330.7290 89 123 83
745566.4293 3984390.4241 330.4526 91 126 83
745576.3524 3984414.1646 327.8101 98 120 86
745577.5248 3984430.0952 325.5050 107 112 99
745577.4218 3984430.1414 326.6419 107 110 97
745580.8856 3984338.1362 327.7143 160 133 110
745588.5948 3984449.2003 323.0982 163 136 114
745244.5951 3984438.8743 405.4017 93 119 105
745244.5951 3984438.8743 405.4017 93 119 105
745535.7913 3984366.5894 336.4830 69 84 83
745378.9093 3984484.4017 373.5719 186 157 133
745378.9093 3984484.4017 373.5719 186 157 133
745571.8651 3984389.2967 327.5203 98 129 82
745559.5945 3984420.1197 331.5139 177 161 147
745496.9500 3984501.8929 346.5566 82 83 85
745212.4206 3984454.5156 416.0686 92 104 98
745395.7426 3984376.4772 370.0944 66 80 70
745350.4258 3984432.4203 380.8602 78 106 90
745455.1121 3984502.2925 356.3051 116 112 95
745455.1121 3984502.2925 356.3051 116 112 95
745455.1121 3984502.2925 356.3051 116 112 95
745524.2184 3984478.9789 340.0126 67 91 88
745523.1173 3984410.5344 340.9184 82 109 92
745399.2976 3984526.4304 369.7261 94 88 89
745421.7241 3984509.0333 364.6141 77 87 95
745377.9680 3984422.4806 374.2379 73 95 84
745496.6464 3984499.2636 345.8607 93 88 90
745487.6182 3984491.4598 346.2198 75 95 88
745561.6300 3984438.7572 330.0633 104 97 94
745461.7059 3984332.6035 356.7787 132 125 99
745566.1760 3984493.2592 327.9610 82 107 82
745572.2955 3984545.8731 327.1528 63 88 86
745424.5860 3984451.7899 364.8857 107 123 100
745516.3405 3984450.8838 341.0000 149 128 105
745516.3405 3984450.8838 341.0000 149 128 105
745420.6208 3984534.3020 366.3343 189 139 122
745473.1416 3984516.6802 350.6439 152 127 110
745404.2599 3984428.1356 367.3437 177 145 116
745404.2599 3984428.1356 367.3437 177 145 116
745361.7411 3984489.9652 378.3648 85 113 93
745595.8625 3984478.6035 323.9506 64 80 84
745444.6172 3984385.8442 358.6516 171 158 126
745423.0570 3984543.0145 366.0931 183 136 117
745596.0338 3984461.1110 321.6335 80 101 92
745546.2897 3984363.4264 333.7693 126 120 97
745223.6213 3984377.7886 412.7575 74 102 97
745386.4918 3984436.1916 371.8006 80 104 89
745563.0578 3984393.0423 332.4388 121 107 97
745308.6343 3984533.4980 389.0488 85 98 99
745356.1843 3984492.7623 379.2978 108 125 92
745460.3958 3984433.5573 354.1829 203 189 173
745377.7370 3984458.2345 374.9351 159 139 115
745223.5086 3984374.3546 413.5108 75 105 100
745417.3680 3984509.3770 367.6931 136 107 107
745426.6558 3984530.9763 360.8892 177 159 146
745486.6945 3984482.5583 347.1867 81 111 94
745473.7049 3984508.0462 350.6667 176 149 115
745243.3675 3984319.6901 406.7897 86 109 100
745539.0925 3984352.4264 335.6228 108 105 99
745312.2781 3984529.1878 388.4094 171 156 127
745488.4425 3984480.9255 347.2613 200 164 130
745225.9110 3984381.8724 414.1951 78 108 96
745553.3973 3984470.8619 331.3960 182 155 124
745465.9097 3984489.1350 352.4660 181 159 129
745401.9644 3984450.8351 368.1440 90 111 94
745568.9102 3984443.2806 331.7480 90 101 89
745277.8754 3984489.8567 397.7933 167 147 124
745501.1460 3984470.0417 345.1504 86 109 95
745265.4140 3984529.0155 399.8515 73 102 94
745536.3766 3984393.8864 336.6775 108 122 97
745575.7730 3984339.9453 328.9262 143 121 100
745456.8831 3984450.8174 355.5246 178 142 113
745535.1979 3984365.2109 337.4608 87 118 94
745395.4912 3984424.3099 371.8855 70 88 85
745395.4912 3984424.3099 371.8855 70 88 85
745463.3764 3984509.8087 354.0615 98 115 82
745540.0881 3984387.3052 335.2617 80 111 88
745398.4950 3984449.7510 368.9971 71 80 90
745564.1898 3984483.1452 329.1412 91 100 91
745554.3649 3984539.8925 329.3926 122 124 88
745554.3649 3984539.8925 329.3926 122 124 88
745254.6368 3984533.6572 401.8997 80 113 99
745393.8441 3984485.3750 376.6182 54 76 84
745202.1795 3984416.9632 417.8830 80 114 99
745227.8208 3984505.3464 408.7184 86 96 97
745217.0341 3984447.8125 415.0549 81 100 96
745523.1850 3984422.8024 340.2609 159 136 105
745523.1850 3984422.8024 340.2609 159 136 105
745453.4087 3984529.3787 359.1418 125 101 101
745384.7219 3984464.0207 372.9312 162 140 113
745559.0310 3984482.4485 330.2431 87 107 91
745528.0891 3984442.1145 338.8990 83 98 89
745352.8357 3984494.2498 380.2878 81 112 89
745286.8856 3984361.6044 397.8347 92 109 103
745376.7112 3984471.2830 375.1327 75 84 95
745571.4841 3984520.4866 325.5116 85 107 80
745580.5369 3984379.8799 326.5721 101 117 91
745282.7108 3984326.4293 396.6836 91 107 93
745308.4698 3984501.1595 389.0754 65 92 86
745569.8302 3984359.9247 328.6132 91 113 94
745514.3894 3984471.0180 342.9309 72 101 89
745370.4081 3984532.0177 375.4098 69 92 90
745228.9463 3984328.9919 411.0152 71 100 94
745332.2434 3984373.9975 385.3452 92 119 97
745332.2434 3984373.9975 385.3452 92 119 97
745373.0696 3984421.8937 375.6102 90 115 89
745561.0644 3984358.6707 331.2905 97 113 91
745499.3804 3984487.7540 344.5776 94 115 96
745572.9828 3984529.1834 325.6795 82 108 85
745249.7079 3984460.4349 404.3372 95 122 108
745552.6248 3984404.8329 333.2929 140 133 127
745582.3077 3984358.2131 325.7820 168 135 108
745313.7210 3984506.4415 388.9053 95 117 96
745416.8286 3984462.0436 364.6791 108 124 94
745223.6076 3984465.0847 413.3039 109 120 110
745570.9494 3984353.4224 329.6292 60 94 77
745227.3936 3984473.0875 409.7256 79 99 98
745399.4728 3984538.3693 371.8413 187 131 114
745549.0005 3984398.0620 332.6047 188 156 125
745414.6945 3984463.1129 365.6791 94 110 91
745273.2014 3984482.5613 398.5926 86 115 106
745387.5301 3984440.5981 371.3927 78 101 88
745353.3304 3984482.7875 380.8011 56 86 86
745199.7474 3984403.9701 419.4074 82 116 97
745594.7352 3984511.7481 324.9311 209 201 188
745524.4074 3984432.1307 339.8426 202 181 149
745542.6653 3984476.5404 335.6829 133 128 92
745542.6653 3984476.5404 335.6829 133 128 92
745425.7741 3984529.1947 360.9595 147 136 132
745420.9509 3984459.8350 362.8598 108 122 96
745289.1582 3984517.5424 395.2248 92 115 92
745493.0336 3984472.4206 346.2837 206 172 135
745259.9044 3984325.5809 402.6948 132 117 103
745283.4079 3984526.4193 396.4555 82 101 90
745413.2703 3984475.8812 367.3233 72 80 83
745413.2703 3984475.8812 367.3233 72 80 83
745515.2638 3984488.3715 341.4896 106 119 95
745466.4478 3984436.1545 352.5619 107 102 100
745532.5196 3984454.7914 337.2268 143 126 100
745271.5421 3984531.9892 398.5637 67 94 90
745540.7475 3984365.5539 335.0983 76 98 88
745374.2064 3984472.5832 378.0588 87 97 97
745272.3310 3984475.4539 398.6245 95 108 104
745327.0796 3984405.2527 386.3080 82 88 90
745388.8367 3984507.8011 370.3760 70 77 89
745388.5255 3984350.2122 368.1582 77 112 84
745203.5513 3984434.9511 418.2256 94 97 99
745591.4669 3984505.2099 321.3211 91 94 95
745591.4669 3984505.2099 321.3211 91 94 95
745397.6538 3984533.4526 371.2357 172 161 152
745527.7330 3984322.4529 340.6146 70 90 82
745588.3573 3984375.4856 325.5614 101 110 87
745512.4273 3984485.5982 342.0811 194 159 131
745326.5532 3984485.5807 390.1386 84 88 88
745324.4522 3984482.9261 387.4338 78 84 89
745367.1308 3984461.1887 376.6206 161 131 111
745539.1325 3984384.2762 335.2953 80 105 89
745458.0878 3984405.2266 355.1844 74 83 91
745352.0603 3984431.7960 379.5575 167 147 121
745265.0907 3984476.3189 403.2136 192 180 167
745542.1520 3984474.5568 336.1303 134 135 104
745506.3322 3984463.8767 344.6018 161 142 114
745506.3322 3984463.8767 344.6018 161 142 114
745249.8771 3984367.6403 408.5053 132 145 114
745357.9835 3984470.2845 378.2892 169 139 119
745201.6511 3984485.7663 415.8660 81 93 97
745543.8477 3984474.1240 334.6589 78 111 88
745543.8477 3984474.1240 334.6589 78 111 88
745312.9868 3984328.4975 392.8998 118 116 97
745485.9831 3984515.2650 348.6340 93 95 90
745549.1973 3984387.4908 332.5271 81 101 89
745378.6420 3984382.6973 373.6985 146 131 114
745562.7354 3984380.4560 329.1155 95 120 98
745383.3502 3984497.7924 373.7952 62 81 88
745587.3569 3984480.6701 320.3455 119 115 100
745299.3054 3984513.3880 392.1216 97 112 89
745463.8973 3984405.9321 354.6669 77 93 88
745449.6315 3984421.5002 357.5183 70 87 85
745444.8631 3984354.3068 361.2627 78 93 86
745354.8726 3984421.0430 378.8883 173 152 122
745559.9382 3984485.1833 329.9742 90 101 91
745365.6123 3984487.6094 376.4278 78 111 94
745498.6010 3984490.4006 345.4052 183 147 115
745498.6010 3984490.4006 345.4052 183 147 115
745587.9623 3984429.6197 323.8874 144 128 109
745519.2362 3984486.5144 338.2115 73 79 88
745519.2362 3984486.5144 338.2115 73 79 88
745325.0406 3984485.6977 387.1944 82 89 88
745526.5598 3984315.1807 340.6728 74 98 91
745366.2376 3984458.5153 376.9946 154 127 109
745433.5674 3984367.5701 362.4872 111 112 84
745218.0464 3984404.6431 413.2523 67 97 97
745247.7860 3984356.4005 409.1282 136 145 105
745292.6838 3984383.4819 396.4090 67 87 84
745549.5555 3984391.2108 333.1522 191 172 151
745291.4976 3984463.8626 393.5087 182 159 127
745369.8272 3984382.5877 376.9037 158 143 115
745369.8272 3984382.5877 376.9037 158 143 115
745321.7923 3984472.8506 387.9853 62 82 86
745593.6918 3984507.6107 320.8418 102 104 108
745533.7493 3984447.9911 337.1185 195 173 141
745533.7471 3984447.9803 337.1271 192 171 141
745367.4425 3984516.0228 377.1526 62 93 87
745377.4665 3984346.3408 374.2721 136 124 104
745267.5615 3984542.0466 398.8795 136 121 111
745301.1975 3984510.5758 390.8727 144 137 123
745353.1981 3984397.7917 379.9022 171 152 126
745353.1981 3984397.7917 379.9022 171 152 126
745370.3602 3984427.0995 375.6303 193 171 136
745204.2029 3984444.0032 415.7293 90 95 99
745238.9893 3984401.6834 408.9344 78 115 97
745571.9634 3984357.3876 328.2425 157 137 114
745252.8159 3984536.1207 402.8788 188 186 176
745383.7646 3984405.6856 372.4048 70 104 93
745341.6295 3984440.0985 381.3210 157 144 114
745532.4671 3984415.5062 335.2158 103 110 97
745496.9196 3984460.6610 346.2902 96 111 88
745236.9857 3984532.6859 405.6957 127 132 136
745227.1294 3984326.9601 412.9459 56 80 89
745227.1294 3984326.9601 412.9459 56 80 89
745343.7102 3984505.5124 382.4106 173 161 139
745343.7102 3984505.5124 382.4106 173 161 139
745257.3142 3984385.1897 405.5168 54 79 85
745448.7556 3984379.0559 359.0593 67 87 86
745346.3642 3984395.2245 381.6509 154 138 114
745481.6110 3984531.3175 349.9175 148 121 102
745481.6110 3984531.3175 349.9175 148 121 102
745452.0989 3984326.4988 359.1879 115 121 80
745314.5630 3984511.7505 389.7039 70 88 83
745406.1213 3984435.4054 366.6304 186 167 136
745406.1213 3984435.4054 366.6304 186 167 136
745446.8620 3984373.6687 360.6771 103 104 89
745393.2350 3984503.1158 371.6771 81 98 90
745235.6634 3984327.6047 409.2062 123 139 99
745243.5794 3984538.9845 404.2584 74 102 94
745432.6748 3984360.9019 363.8583 119 120 93
745561.2955 3984350.8144 330.9003 156 144 121
745382.2542 3984496.4428 373.0645 157 140 125
745382.2542 3984496.4428 373.0645 157 140 125
745555.0556 3984410.0832 335.8633 92 103 94
745300.3268 3984407.8780 401.2869 90 103 96
745391.7573 3984486.4029 375.2933 156 122 110
745562.5609 3984513.5852 328.8079 140 122 104
745278.4403 3984511.8473 397.2322 203 189 173
745199.7007 3984469.9015 416.3751 174 165 150
745368.6178 3984419.4042 376.9585 75 97 85
745203.4052 3984437.7453 417.1304 91 95 99
745513.3795 3984490.1911 342.4052 95 102 96
745353.6232 3984432.1357 379.0891 104 115 93
745353.6232 3984432.1357 379.0891 104 115 93
745369.6737 3984431.1656 375.6545 177 152 119
745369.6737 3984431.1656 375.6545 177 152 119
745302.1069 3984319.2533 393.5338 143 132 111
745240.0912 3984542.2393 405.3949 190 184 177
745196.3709 3984367.3473 418.1124 102 113 115
745574.7252 3984496.3770 325.8350 132 125 102
745472.5998 3984435.7555 350.4561 195 164 132
745452.3396 3984406.5869 357.1590 88 88 90
745318.0730 3984534.7012 388.6914 85 101 87
745235.2150 3984329.2020 408.4662 59 92 90
745583.1561 3984311.6205 326.4367 160 136 110
745583.1271 3984311.6543 326.6249 161 137 110
745412.0853 3984504.5179 370.3948 54 73 84
745199.0981 3984474.4369 416.2461 90 97 98
745475.1056 3984430.0774 350.1523 201 189 172
745373.0632 3984383.3851 375.7950 115 109 93
745479.6727 3984544.8377 348.9924 60 94 80
745369.9361 3984391.9932 376.6930 189 167 133
745250.4297 3984317.3112 407.0089 132 132 130
745308.0712 3984333.7343 394.3732 57 85 83
745244.0113 3984368.9799 409.0900 89 93 94
745600.2037 3984510.8889 318.3412 183 178 167
745322.1963 3984475.3139 387.3426 60 79 85
745322.1963 3984475.3139 387.3426 60 79 85
745533.2397 3984460.8234 338.3349 138 130 105
745558.5611 3984342.7699 331.4863 161 139 106
745558.5611 3984342.7699 331.4863 161 139 106
745351.3745 3984495.2992 380.7249 184 173 160
745408.2412 3984527.3957 367.2509 146 129 121
745542.3894 3984426.7770 335.9251 64 93 90
745258.9525 3984532.0410 401.1434 75 102 94
745446.1490 3984444.8805 356.8347 202 188 171
745395.8268 3984529.8425 371.5466 187 180 169
745588.9018 3984340.0609 324.1595 158 132 108
745247.0075 3984537.5564 404.0538 76 106 99
745439.7634 3984390.6811 359.1922 165 136 112
745439.7634 3984390.6811 359.1922 165 136 112
745211.7931 3984532.9218 410.4942 80 92 92
745328.4800 3984409.0152 393.7913 75 94 89
745328.4800 3984409.0152 393.7913 75 94 89
745363.7625 3984494.7055 377.6489 58 87 85
745201.2155 3984484.1971 415.6881 84 94 96
745360.5259 3984484.8679 377.8899 70 95 93
745536.4753 3984536.3692 336.2454 58 81 80
745536.5049 3984536.5132 335.4951 60 83 83
745544.6478 3984496.1291 334.1364 67 98 85
745396.9363 3984359.4042 369.4502 74 110 87
745396.9363 3984359.4042 369.4502 74 110 87
745207.5925 3984458.9307 414.5660 76 91 96
745260.6558 3984531.3183 400.7790 97 125 100
745382.4994 3984395.8371 372.7123 57 87 85
745382.4994 3984395.8371 372.7123 57 87 85
745372.9107 3984455.9938 378.1491 64 80 87
745508.4182 3984485.3451 343.6195 194 167 127
745295.0619 3984353.5965 396.7148 109 113 88
745516.1210 3984490.2521 340.8757 110 121 98
745516.1210 3984490.2521 340.8757 110 121 98
745498.8680 3984480.3034 344.8378 192 157 127
745268.9213 3984452.1255 400.3074 87 103 91
745588.9606 3984342.7886 323.5803 168 139 113
745560.5210 3984515.7641 329.2934 135 117 100
745560.5210 3984515.7641 329.2934 135 117 100
745382.0858 3984428.1135 373.0561 178 149 114
745303.2085 3984476.3056 391.7378 56 84 85
745303.2085 3984476.3056 391.7378 56 84 85
745261.7925 3984544.2121 400.2185 154 148 123
745425.6198 3984432.7984 363.4367 64 94 84
745564.3898 3984481.4545 328.0108 161 132 112
745390.4943 3984516.0722 370.7459 128 114 107
745265.9329 3984482.1087 400.3449 133 135 113
745276.6568 3984483.4721 398.0580 128 126 115
745330.2693 3984410.6488 396.8369 110 121 103
745385.0771 3984354.5344 372.3272 72 90 83
745385.0771 3984354.5344 372.3272 72 90 83
745202.1846 3984429.5906 416.5411 148 147 124
745486.8883 3984477.6149 347.6167 89 105 93
745342.4902 3984395.7175 382.2549 158 142 115
745342.4902 3984395.7175 382.2549 158 142 115
745447.3055 3984421.2372 358.8386 170 133 121
745477.7071 3984518.9093 349.5750 128 113 105
745477.7452 3984518.7916 349.9747 131 112 101
745591.2995 3984510.6508 323.3866 207 202 187
745493.4837 3984494.7829 346.3819 191 165 125
745587.1510 3984463.8593 324.8843 207 204 199
745244.8383 3984364.9815 409.0920 110 120 98
745467.7211 3984476.9279 351.9730 112 118 97
745395.2668 3984510.7904 373.0663 111 178 219
745502.1560 3984468.4028 344.9968 192 171 141
745266.4351 3984532.7336 400.0384 192 186 176
745370.4986 3984329.3628 376.3666 107 110 96
745370.5500 3984329.3784 376.4388 107 109 95
745297.7425 3984512.3739 391.1422 128 121 112
745390.9240 3984530.9540 370.6333 130 104 104
745404.8946 3984432.0618 367.1994 194 171 140
745286.8539 3984128.5240 400.4385 183 170 153
745564.2141 3984536.7989 327.9719 145 122 105
745230.6389 3984496.7952 408.0394 77 94 101
745554.5759 3984542.8331 330.8216 118 125 88
745422.1132 3984524.7344 364.1258 183 170 160
745291.9284 3984338.5152 398.3379 122 134 102
745291.9284 3984338.5152 398.3379 122 134 102
745423.5194 3984420.0911 364.3783 65 91 84
745448.0781 3984443.9714 356.5381 202 189 174
745533.0667 3984360.5748 337.9718 188 173 154
745495.2413 3984420.9712 345.9685 95 123 92
745358.7955 3984394.2740 378.7406 168 147 120
745358.7955 3984394.2740 378.7406 168 147 120
745474.5586 3984522.6794 349.9240 142 120 104
745474.4000 3984522.8686 348.8483 141 120 102
745374.7781 3984463.3035 376.3428 64 82 84
745369.1595 3984328.3723 377.1912 57 87 81
745390.0444 3984517.6546 369.8154 72 82 88
745447.7584 3984323.7435 360.2131 68 87 81
745293.9704 3984482.9892 394.5030 89 93 95
745469.0862 3984390.7121 352.1926 57 86 82
745421.8555 3984522.4321 364.3895 179 168 159
745375.8360 3984419.1522 374.7869 99 117 91
745478.0737 3984539.1951 349.1837 169 149 128
745604.6821 3984539.6863 319.9569 66 87 79
745581.7494 3984539.3467 323.0059 184 161 125
745581.6777 3984453.9530 324.4223 134 117 102
745323.6765 3984481.4779 386.8268 76 83 86
745323.6765 3984481.4779 386.8268 76 83 86
745555.0634 3984472.1871 331.4060 93 103 91
745531.1575 3984397.1988 337.6364 88 112 95
745443.5148 3984427.1279 359.4904 188 177 164
745231.7644 3984513.7372 408.2091 152 148 125
745587.2819 3984462.0680 325.3504 131 146 119
745358.6599 3984386.2727 378.7016 109 103 95
745575.6041 3984357.9089 327.7108 87 102 95
745265.7845 3984430.1090 400.6129 74 88 89
745568.3336 3984384.2452 329.1422 190 160 131
745515.3113 3984475.7340 342.3787 73 94 89
745362.0623 3984459.4079 381.9763 210 164 138
745399.6703 3984425.5276 367.7421 107 99 90
745434.9118 3984365.6920 361.6010 76 99 84
745409.8484 3984507.4224 370.5858 83 110 113
745354.3187 3984416.7498 379.5366 146 133 106
745405.0608 3984441.1342 367.7457 149 140 125
745404.9586 3984441.1257 367.3857 148 139 125
745358.1150 3984392.7215 379.0536 132 123 103
745472.6116 3984520.6517 351.0234 179 157 133
745534.9761 3984536.6150 336.1229 85 126 90
745534.9710 3984536.4773 336.8161 86 125 91
745358.1073 3984504.4791 379.6390 106 114 95
745477.2872 3984537.1817 349.2887 162 147 129
745551.2061 3984542.6564 330.0777 89 111 86
745402.9122 3984453.1290 368.7492 67 85 88
745301.8712 3984507.9234 389.7873 129 124 110
745407.4236 3984444.0450 366.5563 186 165 132
745442.5627 3984330.3137 363.8365 59 89 78
745215.8002 3984542.7352 411.0461 84 94 94
745422.1595 3984514.6224 362.1809 77 83 95
745422.1595 3984514.6224 362.1809 77 83 95
745380.9600 3984462.2133 373.6697 175 141 112
745357.0645 3984430.7419 378.7109 166 145 122
745354.8322 3984491.5165 379.1955 201 191 180
745458.8838 3984493.4592 353.8375 122 120 113
745346.5013 3984437.4771 380.4468 166 142 110
745346.5013 3984437.4771 380.4468 166 142 110
745414.8137 3984512.8811 372.0332 52 67 81
745557.4602 3984480.9369 330.2498 148 127 105
745242.4291 3984354.5858 409.2844 130 138 106
745285.7003 3984516.3336 395.5698 88 120 97
745266.2762 3984479.7389 399.8351 93 102 101
745398.1916 3984409.8507 368.7781 66 78 83
745244.5420 3984363.4254 409.2510 127 136 111
745309.5008 3984499.2952 388.4890 118 137 87
745370.2496 3984390.6849 376.5345 122 117 99
745370.2496 3984390.6849 376.5345 122 117 99
745490.1500 3984507.2277 348.0624 105 120 91
745206.9081 3984455.7876 414.9247 84 92 97
745488.2659 3984490.6321 346.4768 86 106 100
745349.9163 3984526.9514 380.9737 108 107 99
745275.8176 3984478.5560 398.1290 169 146 126
745392.1141 3984520.5575 373.1414 184 133 117
745453.8551 3984472.6294 354.9672 164 133 112
745457.4676 3984479.9079 353.9612 179 143 114
745282.3118 3984512.4864 396.1607 131 130 112
745441.0815 3984333.8410 362.1525 84 93 77
745578.4616 3984434.1711 325.4891 102 115 95
745362.5868 3984528.6409 378.4386 99 96 86
745566.4922 3984347.6787 330.2303 62 90 81
745429.7061 3984529.7245 360.1039 108 99 101
745464.6869 3984487.4293 352.5578 113 105 99
745439.5628 3984331.2999 361.7068 60 88 84
745431.4933 3984500.9970 360.5104 139 114 97
745431.5763 3984500.9552 360.8345 138 114 99
745242.1118 3984359.6808 409.7053 81 94 95
745379.3725 3984424.2827 373.6383 173 151 121
745379.4418 3984424.2819 373.7803 177 155 123
745529.3236 3984445.9408 338.6584 94 100 93
745368.2190 3984394.1108 376.9784 179 159 128
745532.1963 3984414.3974 337.9035 102 113 99
745206.9308 3984449.9092 415.1905 154 153 134
745522.3956 3984430.2958 339.9724 175 152 124
745299.4833 3984323.7625 395.6145 82 90 88
745299.4833 3984323.7625 395.6145 82 90 88
745354.9407 3984431.1848 378.8865 132 119 94
745354.9407 3984431.1848 378.8865 132 119 94
745354.9407 3984431.1848 378.8865 132 119 94
745379.0731 3984467.8784 375.1805 73 88 88
745404.3932 3984403.0970 368.6227 72 97 87
745595.6397 3984452.5362 321.5907 86 114 93
745215.1205 3984545.2796 409.5695 81 93 95
745205.3295 3984442.4793 415.9530 161 160 142
745430.0384 3984449.3074 361.0073 95 124 96
745422.6376 3984538.7167 366.4326 138 112 110
745274.5492 3984491.5667 399.2195 164 151 129
745437.4915 3984386.5217 360.6288 183 167 136
745361.9339 3984383.5882 378.5250 177 158 125
745380.9912 3984529.6670 374.2156 159 116 109
745477.4969 3984525.4972 349.6543 190 163 126
745256.9202 3984533.1194 401.5523 86 112 96
745410.8609 3984359.5558 367.3669 68 105 85
745363.8103 3984469.2633 376.9113 173 143 121
745367.8162 3984518.4525 376.9119 64 86 86
745319.7773 3984503.9809 387.7991 94 121 98
745360.5668 3984524.4911 378.3298 156 133 113
745519.3656 3984462.2225 341.2213 110 122 95
745571.7611 3984376.0351 329.0966 84 107 89
745501.6424 3984478.6373 344.4743 85 104 92
745200.9896 3984429.2551 417.0395 82 92 97
745321.7247 3984499.8494 386.6984 65 81 92
745284.6542 3984340.1432 400.8383 78 95 89
745460.7089 3984496.6682 354.1336 77 88 85
745594.3065 3984508.7033 322.0450 207 203 197
745442.8269 3984442.6799 357.8309 100 118 101
745343.5547 3984507.0533 383.6526 96 95 93
745327.5681 3984493.8304 385.0651 105 108 94
745310.4291 3984322.0106 394.1875 80 113 93
745577.7037 3984352.7061 327.6981 95 93 90
745388.5378 3984367.4899 371.8700 84 90 86
745596.1565 3984536.0571 320.3609 199 185 164
745365.2818 3984429.3172 376.8821 127 124 102
745365.2818 3984429.3172 376.8821 127 124 102
745362.4103 3984504.5384 378.4274 161 136 114
745339.1135 3984493.0938 382.7418 186 177 164
745247.5475 3984326.9195 406.0734 110 129 100
745380.7307 3984434.0822 374.1744 125 116 89
745331.9192 3984499.5259 384.8270 199 184 170
745489.5692 3984514.3219 348.2196 74 92 90
745291.4984 3984474.1472 394.5099 83 88 91
745363.8610 3984413.9883 377.4115 194 175 146
745422.4961 3984483.1956 365.5399 95 102 110
745421.7569 3984404.7100 365.5227 64 91 84
745495.1919 3984489.6438 345.3538 201 166 131
745495.1919 3984489.6438 345.3538 201 166 131
745363.6661 3984442.8759 376.6869 170 149 117
745569.0890 3984431.3106 331.4436 171 127 116
745366.4924 3984430.9742 376.1523 116 125 96
745195.7125 3984405.0085 419.3595 89 98 99
745239.9476 3984461.5181 406.7232 67 96 95
745303.8924 3984480.9031 391.2046 59 84 79
745217.6161 3984452.8799 412.4661 92 106 93
745388.7083 3984436.2891 373.2634 221 161 128
745320.3166 3984390.5962 389.8541 117 125 86
745377.1419 3984502.0475 373.8431 66 94 90
745251.1925 3984318.3000 405.9496 54 86 87
745393.5132 3984441.0146 374.0490 224 165 132
745507.7179 3984417.4188 343.4727 94 115 97
745351.0863 3984389.6849 380.6569 102 100 93
745558.8824 3984473.9182 330.6457 91 101 90
745558.9021 3984474.0126 330.5222 93 100 87
745382.7539 3984489.8395 376.1865 200 184 169
745234.6637 3984326.9475 410.3075 64 95 93
745574.7898 3984513.6365 325.6616 142 130 109
745599.1245 3984471.3738 321.8655 77 95 94
745599.0051 3984471.3353 322.6633 68 88 90
745347.1075 3984516.2098 381.5993 137 131 114
745377.2206 3984340.1219 375.7081 96 106 91
745465.6358 3984353.7418 354.7551 59 85 78
745568.6828 3984412.0054 330.4562 125 132 110
745568.6828 3984412.0054 330.4562 125 132 110
745442.7263 3984441.1983 357.8188 209 186 158
745574.8892 3984417.5188 327.4687 141 122 111
745574.8892 3984417.5188 327.4687 141 122 111
745579.7057 3984523.7444 323.9686 110 117 99
745600.7672 3984464.7793 320.0641 177 148 120
745572.4928 3984404.3014 327.8495 148 129 114
745559.5939 3984523.2754 329.2493 133 124 103
745296.0197 3984519.0957 393.2116 195 183 171
745564.4248 3984545.9388 327.5312 171 152 122
745564.4225 3984545.9332 327.5114 168 150 120
745326.4692 3984401.8209 386.2572 78 87 88
745481.5235 3984539.7726 347.6499 190 166 134
745481.5693 3984539.7209 347.9155 185 163 134
745481.5693 3984539.7209 347.9155 185 163 134
745437.9569 3984482.8135 362.8153 177 163 148
745382.2243 3984446.3320 374.0736 116 119 98
745329.8446 3984401.0662 385.1571 153 137 117
745599.3202 3984522.8661 321.6294 201 194 182
745266.4185 3984486.0820 400.7325 75 102 92
745425.9287 3984495.4450 375.5895 52 71 79
745203.2993 3984439.7212 416.2555 92 99 101
745448.0374 3984486.4095 356.2700 153 121 107
745295.7708 3984472.4845 394.0002 109 126 105
745203.8184 3984440.8786 416.3652 86 95 98
745310.5589 3984494.7255 387.9403 134 153 86
745252.6824 3984395.4061 405.7034 88 107 97
745444.1095 3984409.6557 359.8561 202 156 129
745243.0367 3984536.6369 403.5754 139 133 123
745230.3708 3984511.2356 407.4973 136 136 116
745459.4893 3984481.2435 353.7536 164 135 113
745500.7500 3984410.5513 344.1149 75 91 94
745288.7662 3984459.8772 394.2703 136 125 109
745288.7662 3984459.8772 394.2703 136 125 109
745559.4358 3984467.8953 330.2779 196 159 130
745592.9516 3984338.1013 323.1520 161 137 109
745379.5297 3984486.6011 374.7273 187 159 132
745380.5327 3984391.2557 373.1379 125 123 97
745356.1459 3984389.3989 379.5873 168 145 115
745575.8890 3984422.4170 326.3836 147 131 114
745575.8890 3984422.4170 326.3836 147 131 114
745230.7283 3984518.3388 407.7449 81 85 92
745387.4954 3984379.8612 372.0142 66 85 84
745266.8486 3984471.0525 402.8216 67 93 91
745535.8538 3984541.1377 333.7957 56 84 82
745293.8269 3984481.3885 392.5034 151 136 113
745344.3547 3984419.0980 381.2626 173 154 130
745561.2304 3984504.4337 328.8172 129 120 103
745494.7602 3984368.6608 347.9197 57 88 84
745364.5946 3984484.1727 376.6602 192 181 163
745375.5939 3984497.3889 376.9417 179 133 123
745546.7320 3984355.4800 333.7172 160 149 126
745546.7708 3984355.4780 333.7624 158 149 128
745514.6650 3984459.6338 342.4961 136 124 112
745495.7421 3984462.7820 346.7858 75 99 85
745415.3486 3984458.7701 365.1064 194 182 165
745599.9728 3984502.8325 319.4490 177 167 154
745600.0667 3984502.9662 318.7890 182 169 157
745396.0548 3984536.4927 370.9069 147 139 134
745373.3687 3984410.3796 375.8202 104 105 94
745347.1601 3984530.3257 381.5515 77 95 92
745407.3019 3984407.3118 367.5488 101 110 100
745407.2202 3984407.3076 367.4311 103 112 101
745575.2875 3984498.0205 325.5005 157 133 111
745575.3346 3984498.0783 324.9727 151 128 106
745208.7860 3984394.9637 418.3005 65 95 95
745375.8384 3984373.1605 374.5794 69 97 88
745346.5543 3984392.9338 381.5533 92 92 88
745386.1045 3984358.3006 373.4054 71 90 86
745253.3664 3984376.8488 407.1245 71 100 90
745242.3683 3984539.6003 404.8628 90 115 98
745542.7952 3984485.4972 334.0149 73 96 89
745485.7643 3984420.4535 348.2211 74 100 88
745559.5470 3984504.6316 330.0116 184 162 131
745559.5836 3984504.7405 329.6733 190 168 135
745200.7716 3984421.1484 417.7408 178 172 153
745475.5237 3984534.0652 350.0028 80 87 85
745601.0565 3984451.8370 320.3627 168 142 117
745601.1555 3984451.8733 319.7770 170 144 118
745427.2421 3984442.9149 362.7276 64 94 88
745368.5897 3984459.5539 376.5421 95 109 97
745585.8333 3984422.4996 324.6463 95 92 93
745562.9774 3984480.9813 328.5391 108 102 101
745324.8904 3984488.4785 385.4099 84 87 88
745214.3789 3984424.5051 415.5708 91 109 106
745528.3149 3984349.7025 341.1846 103 110 107
745489.4606 3984479.3532 346.7701 139 135 112
745487.1057 3984476.2011 347.6259 203 164 128
745554.0922 3984473.7850 331.8521 185 162 135
745554.0922 3984473.7850 331.8521 185 162 135
745554.0841 3984473.7954 331.7139 186 163 136
745477.1315 3984523.5078 350.0602 199 172 139
745268.5026 3984528.7911 399.3624 196 189 177
745271.3859 3984337.8232 401.8565 90 117 94
745208.3413 3984388.7322 418.6885 62 99 96
745548.7083 3984505.4821 333.8241 143 144 102
745580.7005 3984406.5020 328.0227 89 102 88
745419.4661 3984406.6292 364.7760 196 172 138
745219.7202 3984445.6860 411.6987 161 141 120
745437.9010 3984480.2795 364.1205 127 127 128
745587.7439 3984471.7729 325.6359 93 100 113
745258.3611 3984540.7015 402.5847 98 104 101
745220.0808 3984369.2825 413.2901 123 123 103
745562.0840 3984537.9087 328.3332 141 122 104
745207.5354 3984451.9951 414.9994 136 135 116
745563.9200 3984512.4428 328.6099 181 157 129
745563.8978 3984512.3673 328.8297 181 159 131
745558.5607 3984502.4622 330.0939 176 149 121
745563.4224 3984531.9869 328.3032 123 121 100
745362.0627 3984419.4330 377.1669 168 151 133
745588.3204 3984489.5081 321.9125 171 145 125
745195.8732 3984365.5528 416.6922 64 92 98
745315.9335 3984538.3706 386.9024 147 147 124
745515.3752 3984413.8092 341.7317 119 122 99
745330.6670 3984417.9358 394.0042 103 114 102
745230.3262 3984347.1819 408.2413 157 140 125
745580.9629 3984421.0699 326.7541 73 91 86
745580.9786 3984421.0588 326.6222 78 93 88
745544.3645 3984367.9391 334.0966 97 122 92
745268.4246 3984483.8487 401.2893 69 99 97
745590.9618 3984367.0895 323.9294 186 173 155
745399.6981 3984433.6149 368.0817 84 105 89
745204.9887 3984446.5433 415.7549 82 95 99
745353.8150 3984455.7164 379.7450 86 86 92
745273.2474 3984533.8984 399.3356 87 111 98
745482.7708 3984530.9400 348.7771 189 162 127
745507.1046 3984487.2864 342.9862 104 119 95
745507.1046 3984487.2864 342.9862 104 119 95
745422.1138 3984423.3809 364.0673 196 173 139
745422.1138 3984423.3809 364.0673 196 173 139
745491.9794 3984494.1312 345.7195 133 121 101
745356.3260 3984450.7397 379.7813 83 97 87
745292.5204 3984385.0031 396.0301 79 102 95
745405.9028 3984460.7103 370.0130 102 110 117
745461.7726 3984471.8796 353.6223 121 120 102
745574.9913 3984314.0961 329.4294 148 124 98
745464.8326 3984448.5795 353.7310 173 140 112
745362.4405 3984487.9468 377.7066 190 181 170
745369.0112 3984539.2090 377.8224 162 142 123
745320.0644 3984394.9846 389.4136 69 94 82
745393.1398 3984345.7925 371.5371 69 100 82
745446.5911 3984488.7173 369.5987 52 69 79
745446.5911 3984488.7173 369.5987 52 69 79
745289.0075 3984369.5413 397.2847 85 101 97
745267.4104 3984434.6762 401.3679 69 92 93
745351.3204 3984487.8509 379.8623 117 113 110
745308.7120 3984534.8662 389.3365 76 89 96
745596.5062 3984485.2348 320.1288 191 172 152
745377.7392 3984486.0845 374.3619 81 102 91
745371.7429 3984471.6816 378.5342 118 111 106
745286.2766 3984351.6146 399.3239 61 82 78
745576.6141 3984455.5578 328.3699 187 171 150
745576.6141 3984455.5578 328.3699 187 171 150
745359.0955 3984515.0024 378.9110 158 142 116
745589.2070 3984348.4062 323.3927 77 99 87
745585.1263 3984321.2653 325.5632 142 118 96
745545.1196 3984335.0326 334.9490 121 105 96
745589.5244 3984456.9287 322.3368 163 138 115
745428.6820 3984442.1573 362.2258 73 102 90
745344.9628 3984399.0393 381.5879 131 120 107
745345.0352 3984399.0436 381.6676 134 123 107
745516.6491 3984487.7618 341.1203 189 162 133
745196.2601 3984403.0860 418.6405 150 150 134
745452.6063 3984531.8997 360.7959 176 127 114
745300.0448 3984499.4258 391.0709 172 157 137
745300.0448 3984499.4258 391.0709 172 157 137
745373.4934 3984524.1694 375.7078 71 97 89
745454.4396 3984531.5364 359.9678 182 138 122
745548.9026 3984509.2024 334.1255 137 132 94
745293.7798 3984388.7761 395.8811 67 93 87
745597.0954 3984441.5730 321.5892 161 136 113
745579.9924 3984529.8986 323.9790 172 148 114
745579.9952 3984529.8930 323.9727 170 145 113
745530.8006 3984453.7186 337.8546 98 101 90
745525.3489 3984405.2695 338.8521 105 119 99
745526.5229 3984429.9988 339.3108 190 170 137
745526.5229 3984429.9988 339.3108 190 170 137
745561.5440 3984535.9987 329.1293 129 119 98
745537.7246 3984390.9293 336.0053 193 176 156
745575.3824 3984508.8489 325.7895 139 120 105
745589.2239 3984367.9702 324.5220 188 174 156
745482.3265 3984468.3477 348.8048 95 112 89
745239.4028 3984545.2216 405.5310 193 190 180
745277.6371 3984325.1407 399.1165 101 107 98
745372.0687 3984531.6774 375.4259 86 117 91
745372.0687 3984531.6774 375.4259 86 117 91
745201.2028 3984432.9362 416.1746 91 94 99
745598.7476 3984502.1897 319.6346 80 99 93
745189.5291 3984480.3102 417.9564 71 90 96
745355.8514 3984391.3388 379.9511 101 98 90
745276.3251 3984321.9835 399.4043 102 105 96
745276.3251 3984321.9835 399.4043 102 105 96
745351.1070 3984393.5185 380.4778 168 153 124
745351.0527 3984393.5064 380.3633 165 148 122
745423.0110 3984429.1378 363.4538 186 165 131
745588.5238 3984325.9382 324.7211 147 120 102
745505.9558 3984467.4794 343.7515 96 108 94
745505.9546 3984467.4553 343.9459 96 108 97
745373.1556 3984458.5956 376.8133 64 78 84
745376.4762 3984511.1921 376.3869 66 80 87
745284.2062 3984333.1639 400.6312 104 119 90
745193.9919 3984399.6494 419.0667 86 99 99
745518.9094 3984411.8304 341.0557 95 100 92
745439.6496 3984387.1986 358.8840 163 147 122
745576.2445 3984521.0778 325.1054 165 151 129
745565.0451 3984438.3232 330.2639 121 109 103
745396.8002 3984418.5331 371.9714 155 119 115
745369.9888 3984492.1486 381.8914 65 85 86
745262.1635 3984527.0698 399.3399 70 100 94
745366.6433 3984459.7824 376.7084 97 113 93
745366.6433 3984459.7824 376.7084 97 113 93
745397.6895 3984429.2867 368.6983 153 155 155
745372.6050 3984501.1120 380.0061 137 105 105
745364.3298 3984392.9137 377.5195 171 150 123
745197.3134 3984466.9564 416.8824 83 94 95
745558.8386 3984491.7539 330.0196 147 129 109
745397.2918 3984467.4741 369.0973 184 169 154
745297.3547 3984487.7925 391.5623 180 158 129
745563.6857 3984541.0750 327.8060 179 164 135
745557.0266 3984490.6632 330.4130 149 130 113
745453.7608 3984467.1271 356.6308 88 91 86
745201.4834 3984467.9328 415.9233 140 144 121
745310.8021 3984544.1887 391.1726 93 101 105
745601.4565 3984517.7758 317.6167 145 149 151
745560.2385 3984513.4413 329.3626 136 121 105
745387.9047 3984490.7316 374.0977 149 117 112
745339.4781 3984466.0906 383.3171 104 117 88
745460.8634 3984475.2544 354.1867 178 166 137
745419.8799 3984415.5573 364.5740 110 103 95
745229.1314 3984488.1541 408.2401 80 98 98
745581.9960 3984399.3673 325.5978 157 143 119
745366.6655 3984392.2907 377.2862 176 153 122
745385.1165 3984495.4560 374.4333 92 116 95
745591.1294 3984481.2086 324.6983 183 167 153
745591.1294 3984481.2086 324.6983 183 167 153
745525.0310 3984463.4001 340.0077 104 109 87
745401.1861 3984529.5713 367.9134 157 141 131
745370.2165 3984388.7477 376.9450 180 156 125
745225.4356 3984493.7078 409.9858 86 92 94
745581.2573 3984536.7964 323.4009 171 148 120
745556.7019 3984329.5706 332.5434 88 95 91
745371.2342 3984327.2122 375.8472 60 76 80
745296.7589 3984494.2591 391.4765 171 153 127
745559.3810 3984353.1283 331.1284 102 100 88
745559.4418 3984353.0368 330.5193 101 98 89
745377.1157 3984486.7116 375.9302 147 127 105
745601.3920 3984511.5141 318.6404 95 107 96
745575.4791 3984511.4682 324.1988 167 135 110
745194.7737 3984396.5384 419.3966 162 156 137
745353.4718 3984395.2157 380.1266 171 148 116
745353.3508 3984395.1990 379.8975 168 145 116
745429.4323 3984342.1960 363.9873 115 126 87
745268.3593 3984392.5626 402.3007 117 111 94
745268.3593 3984392.5626 402.3007 117 111 94
745268.3593 3984392.5626 402.3007 117 111 94
745357.4876 3984471.7715 378.9156 121 108 99
745588.4931 3984491.4935 322.9043 163 138 120
745345.4737 3984514.8886 382.1430 145 132 112
745416.3171 3984483.3594 366.6117 181 137 121
745416.3171 3984483.3594 366.6117 181 137 121
745579.2280 3984442.4740 324.9059 175 147 126
745374.7380 3984425.9171 374.6100 172 148 118
745595.9544 3984469.7575 321.6785 86 89 90
745293.9872 3984463.8479 395.0522 90 105 91
745373.4557 3984460.4983 376.0548 60 77 85
745540.0869 3984414.1934 338.0464 69 91 83
745443.4100 3984365.5804 361.6773 107 110 85
745593.8332 3984360.8684 322.7323 97 112 91
745302.2324 3984511.9067 391.5352 102 118 99
745438.3900 3984524.5518 358.7784 106 98 95
745552.4154 3984406.4043 332.8264 146 140 134
745423.1191 3984513.4896 361.9315 123 127 132
745448.7925 3984422.6072 358.7685 178 141 126
745470.3445 3984439.9732 351.1545 78 93 93
745379.6343 3984503.2186 372.9281 64 81 86
745495.3303 3984474.6894 347.6043 183 156 118
745560.2457 3984365.7103 332.0338 80 94 88
745407.0828 3984522.4359 368.6768 141 113 108
745425.6976 3984449.1578 362.2564 193 165 126
745425.7310 3984449.1508 362.2469 192 164 125
745339.8490 3984401.9555 382.9236 100 100 91
745339.8490 3984401.9555 382.9236 100 100 91
745240.9612 3984544.4736 404.7853 190 185 179
745468.6509 3984541.4833 372.5422 103 117 91
745246.8865 3984386.1968 407.3464 77 91 91
745370.5756 3984383.9798 376.6626 106 109 94
745353.1806 3984396.3642 380.3680 99 100 88
745353.1300 3984396.3567 380.3307 97 98 87
745294.9619 3984467.1882 395.2216 97 109 94
745226.2461 3984471.2155 409.8628 88 102 102
745565.0172 3984541.6108 326.8566 154 129 109
745363.4028 3984417.0180 377.5067 183 158 123
745422.9203 3984528.5888 362.0503 184 161 142
745197.3035 3984408.5036 419.8794 86 101 102
745425.1876 3984443.5428 362.7147 188 166 128
745580.1213 3984532.6239 323.8198 175 149 115
745538.9650 3984388.3095 335.8256 196 180 159
745299.5549 3984496.2117 391.4230 158 141 122
745231.4654 3984521.6827 407.2634 92 96 97
745413.2688 3984485.2626 367.5858 62 79 93
745365.8975 3984415.0189 376.7751 133 132 109
745365.9467 3984415.0238 376.8658 140 137 112
745374.2098 3984474.3749 377.9014 185 173 161
745588.1240 3984344.1219 324.1362 94 104 92
745561.1992 3984339.8286 330.8150 81 95 86
745280.7958 3984325.5540 397.7605 153 153 127
745257.8981 3984542.7498 400.8145 97 100 99
745472.7926 3984544.4471 366.7956 55 77 78
745399.0633 3984539.7627 372.6057 75 82 78
745289.2652 3984457.2470 394.7275 80 94 90
745340.7113 3984374.6590 383.2510 91 118 96
745340.7113 3984374.6590 383.2510 91 118 96
745451.2895 3984442.2885 356.0062 192 179 163
745361.4748 3984396.1015 378.4080 172 151 121
745374.0522 3984497.4204 376.6577 63 81 88
745272.4117 3984457.1349 399.2642 81 99 98
745373.8934 3984437.2119 374.3490 96 107 95
745207.1820 3984452.4807 416.1936 85 95 100
745562.4083 3984539.9064 328.0333 128 117 97
745486.3409 3984495.9238 347.4253 77 94 94
745487.5407 3984507.5231 348.2210 108 113 86
745560.8753 3984496.4983 330.0419 187 168 146
745560.8753 3984496.4983 330.0419 187 168 146
745453.3795 3984474.9319 354.9749 168 138 115
745440.8926 3984391.8844 359.7617 80 99 86
745224.0200 3984365.7379 413.4279 133 133 109
745236.2000 3984351.2782 409.8307 79 107 91
745360.9110 3984525.9301 378.1788 168 135 111
745308.0788 3984318.1529 393.1471 71 92 90
745459.7448 3984335.8811 358.7585 124 133 106
745555.7168 3984330.7902 332.8591 173 152 124
745295.7916 3984513.4269 391.8282 148 142 126
745337.0511 3984439.6328 382.4977 183 161 137
745376.0697 3984516.3138 374.6859 80 89 97
745583.7360 3984464.5651 323.7168 158 134 119
745332.2939 3984378.1394 385.0979 146 133 109
745332.2939 3984378.1394 385.0979 146 133 109
745560.8800 3984331.2365 331.5593 179 156 127
745326.7094 3984495.0950 384.9643 59 76 87
745377.2059 3984542.9015 374.6361 52 78 82
745383.3040 3984418.5526 372.9095 82 109 88
745577.4080 3984310.2772 329.4241 67 83 82
745216.5195 3984338.9163 413.2394 145 136 125
745405.6216 3984433.7189 367.1963 191 171 138
745548.2973 3984383.5845 332.2144 165 139 114
745369.9650 3984523.6614 375.8639 127 137 110
745561.7581 3984516.6476 329.4478 188 162 129
745561.7908 3984516.7307 329.0888 187 161 127
745346.2984 3984517.5981 382.2796 148 136 118
745544.3654 3984406.5720 337.4952 74 92 88
745198.0278 3984469.8569 416.9011 91 93 98
745593.8665 3984445.2945 322.0572 102 117 99
745489.2079 3984549.4180 346.9641 122 103 90
745388.6697 3984379.0003 371.8149 60 83 83
745506.2406 3984462.6347 344.2116 76 105 93
745354.4262 3984485.1209 379.8986 66 96 93
745576.5349 3984345.1945 327.0939 137 125 106
745576.4767 3984345.2932 327.6156 135 124 109
745442.8658 3984417.0285 361.2653 195 150 128
745336.7056 3984380.3339 384.0463 98 98 81
745379.8158 3984385.1851 372.1519 55 90 84
745473.8994 3984510.0182 350.6474 135 114 105
745299.5619 3984488.4628 392.6812 85 97 86
745424.9222 3984441.5899 362.8606 196 170 131
745501.9116 3984546.0640 344.8257 63 87 81
745367.9806 3984392.2469 376.7357 125 119 101
745539.1240 3984545.8252 333.3478 107 123 84
745562.4219 3984362.9762 330.2089 152 132 109
745372.5244 3984389.2809 376.7154 128 112 96
745502.8556 3984481.3767 344.1984 102 123 94
745337.5851 3984504.0201 385.1015 67 88 87
745360.1119 3984486.5325 378.2225 181 167 150
745328.7693 3984500.0801 385.5131 69 82 87
745349.1377 3984399.0031 380.6832 168 146 120
745380.3428 3984389.8666 373.6680 119 124 96
745299.7328 3984502.1613 391.5073 89 92 92
745306.3022 3984524.0975 391.7601 122 132 136
745373.4502 3984425.2965 374.7651 100 124 93
745377.4962 3984481.9189 373.8941 113 112 107
745294.3940 3984513.5447 392.2487 81 92 97
745224.7637 3984334.0954 410.1603 61 94 90
745475.3019 3984508.4327 350.3678 139 119 107
745474.3519 3984525.3680 350.4044 189 163 132
745474.3764 3984525.3136 350.7347 188 162 131
745247.5910 3984388.9991 407.4057 82 92 93
745560.9975 3984328.5427 331.9061 92 89 90
745584.0109 3984450.4370 324.2964 69 104 85
745209.7847 3984519.2944 412.8412 89 94 96
745349.0511 3984394.3663 380.8253 150 133 108
745349.0511 3984394.3663 380.8253 150 133 108
745484.6793 3984504.8564 348.4672 78 100 83
745329.4213 3984396.2380 385.2565 176 150 123
745537.3308 3984368.0470 335.3047 164 146 121
745563.9024 3984352.8930 330.1711 106 114 91
745363.2739 3984427.9814 377.8740 75 101 87
745363.2598 3984427.9849 377.8847 73 99 87
745348.2615 3984519.2950 380.9591 90 93 87
745279.5368 3984326.2222 397.6181 62 86 85
745279.5368 3984326.2222 397.6181 62 86 85
